X,Y,Z,R,G,B
59.20,2.95,82.41,0.50,0.00,1.00
56.87,7.15,81.46,0.50,0.00,1.00
54.45,10.49,84.03,0.50,0.00,1.00
52.49,11.58,80.71,0.50,0.00,1.00
51.21,15.50,80.40,0.50,0.00,1.00
47.22,15.33,78.35,0.50,0.00,1.00
44.72,16.72,74.26,0.50,0.00,1.00
39.31,14.56,76.07,0.50,0.00,1.00
39.69,12.81,72.63,0.50,0.00,1.00
35.50,12.91,72.00,0.50,0.00,1.00
32.69,10.51,70.12,0.50,0.00,1.00
32.91,14.39,68.07,0.50,0.00,1.00
32.80,14.77,64.05,0.50,0.00,1.00
31.82,18.79,65.44,0.50,0.00,1.00
33.25,21.56,61.62,0.50,0.00,1.00
34.63,25.07,63.91,0.50,0.00,1.00
34.43,28.65,61.84,0.50,0.00,1.00
38.70,30.30,63.59,0.50,0.00,1.00
39.96,34.33,63.02,0.50,0.00,1.00
43.79,31.36,62.85,0.50,0.00,1.00
42.73,26.91,61.27,0.50,0.00,1.00
37.88,28.20,58.53,0.50,0.00,1.00
36.87,24.18,58.83,0.50,0.00,1.00
38.90,21.65,62.87,0.50,0.00,1.00
38.08,18.26,64.75,0.50,0.00,1.00
36.04,19.87,68.22,0.50,0.00,1.00
35.83,17.59,72.05,0.50,0.00,1.00
33.09,19.28,73.79,0.50,0.00,1.00
30.46,22.15,69.81,0.50,0.00,1.00
27.99,25.13,71.09,0.50,0.00,1.00
25.20,24.65,67.29,0.50,0.00,1.00
25.43,29.71,69.15,0.50,0.00,1.00
23.51,29.27,64.12,0.50,0.00,1.00
18.70,29.10,65.90,0.50,0.00,1.00
19.29,26.34,61.93,0.50,0.00,1.00
15.68,25.95,64.23,0.50,0.00,1.00
11.00,26.76,62.34,0.50,0.00,1.00
7.50,25.03,65.37,0.50,0.00,1.00
5.84,25.18,62.00,0.50,0.00,1.00
3.33,24.61,64.63,0.50,0.00,1.00
1.06,29.82,64.33,0.50,0.00,1.00
2.04,29.82,68.65,0.50,0.00,1.00
0.46,31.35,72.72,0.50,0.00,1.00
3.27,35.46,71.83,0.50,0.00,1.00
4.89,35.63,76.68,0.50,0.00,1.00
-0.24,34.01,77.56,0.50,0.00,1.00
-1.70,36.35,75.26,0.50,0.00,1.00
-3.44,34.52,71.99,0.50,0.00,1.00
-3.24,34.20,68.54,0.50,0.00,1.00
-6.98,36.77,65.80,0.50,0.00,1.00
-8.72,31.52,65.24,0.50,0.00,1.00
-9.49,35.44,61.16,0.50,0.00,1.00
-9.68,32.91,58.65,0.50,0.00,1.00
-10.79,33.47,54.34,0.50,0.00,1.00
-11.88,37.52,55.91,0.50,0.00,1.00
-9.56,40.50,56.95,0.50,0.00,1.00
-8.39,43.16,59.52,0.50,0.00,1.00
-11.29,44.36,56.92,0.50,0.00,1.00
-13.58,41.78,57.58,0.50,0.00,1.00
-12.11,42.21,63.17,0.50,0.00,1.00
-13.63,45.73,61.28,0.50,0.00,1.00
-16.06,46.27,57.40,0.50,0.00,1.00
-18.77,42.71,58.78,0.50,0.00,1.00
-18.92,40.07,55.49,0.50,0.00,1.00
-21.74,38.06,56.85,0.50,0.00,1.00
-19.32,35.21,54.34,0.50,0.00,1.00
-16.86,36.59,58.76,0.50,0.00,1.00
-21.11,34.64,60.79,0.50,0.00,1.00
-16.56,33.17,63.11,0.50,0.00,1.00
-14.92,37.08,63.70,0.50,0.00,1.00
-18.43,38.20,67.27,0.50,0.00,1.00
-16.90,36.80,70.86,0.50,0.00,1.00
-12.36,37.00,69.93,0.50,0.00,1.00
-11.98,39.79,75.39,0.50,0.00,1.00
-7.38,38.91,73.94,0.50,0.00,1.00
-6.62,40.07,69.67,0.50,0.00,1.00
-0.79,39.10,70.54,0.50,0.00,1.00
0.19,37.15,67.12,0.50,0.00,1.00
-4.04,39.49,63.87,0.50,0.00,1.00
-4.08,35.47,61.57,0.50,0.00,1.00
-4.16,37.22,56.83,0.50,0.00,1.00
-4.82,33.11,55.26,0.50,0.00,1.00
-2.43,34.73,51.28,0.50,0.00,1.00
-7.00,33.12,50.17,0.50,0.00,1.00
-7.90,36.36,51.88,0.50,0.00,1.00
-12.71,37.05,48.88,0.50,0.00,1.00
-14.11,37.91,52.68,0.50,0.00,1.00
-13.42,42.71,53.13,0.50,0.00,1.00
-13.92,45.15,50.47,0.50,0.00,1.00
-18.20,43.59,50.59,0.50,0.00,1.00
-20.34,47.99,47.50,0.50,0.00,1.00
-16.51,47.71,46.13,0.50,0.00,1.00
-12.94,49.73,47.90,0.50,0.00,1.00
-10.40,53.33,50.63,0.50,0.00,1.00
-10.57,50.96,55.58,0.50,0.00,1.00
-9.35,54.43,55.99,0.50,0.00,1.00
-6.17,55.17,57.68,0.50,0.00,1.00
-6.11,48.54,55.25,0.50,0.00,1.00
-1.61,50.32,56.52,0.50,0.00,1.00
-2.21,53.25,60.50,0.50,0.00,1.00
-6.59,50.56,61.78,0.50,0.00,1.00
-3.51,45.84,58.96,0.50,0.00,1.00
0.07,49.00,63.77,0.50,0.00,1.00
-4.40,51.14,66.34,0.50,0.00,1.00
-6.79,46.31,65.41,0.50,0.00,1.00
-2.61,44.46,66.87,0.50,0.00,1.00
-2.60,45.91,70.41,0.50,0.00,1.00
-5.82,43.38,71.84,0.50,0.00,1.00
-6.54,44.19,75.82,0.50,0.00,1.00
-10.35,44.65,75.88,0.50,0.00,1.00
-12.47,44.04,71.72,0.50,0.00,1.00
-16.68,46.31,75.46,0.50,0.00,1.00
-20.41,43.46,70.76,0.50,0.00,1.00
-21.04,49.70,72.26,0.50,0.00,1.00
-26.50,48.42,68.21,0.50,0.00,1.00
-23.35,53.37,68.88,0.50,0.00,1.00
-25.88,54.96,65.96,0.50,0.00,1.00
-29.63,50.96,66.24,0.50,0.00,1.00
-32.26,48.01,62.06,0.50,0.00,1.00
-35.13,47.78,65.29,0.50,0.00,1.00
-34.43,52.36,68.00,0.50,0.00,1.00
-31.89,55.09,65.77,0.50,0.00,1.00
-30.83,55.16,61.76,0.50,0.00,1.00
-36.58,57.51,62.68,0.50,0.00,1.00
-37.52,59.52,59.18,0.50,0.00,1.00
-34.33,58.03,57.01,0.50,0.00,1.00
-34.61,53.04,55.04,0.50,0.00,1.00
-33.28,50.59,58.36,0.50,0.00,1.00
-33.20,48.22,54.75,0.50,0.00,1.00
-29.49,46.94,53.06,0.50,0.00,1.00
-29.33,44.84,49.92,0.50,0.00,1.00
-25.64,44.28,47.75,0.50,0.00,1.00
-24.77,41.44,45.41,0.50,0.00,1.00
-21.26,42.76,46.65,0.50,0.00,1.00
-22.85,41.94,50.44,0.50,0.00,1.00
-23.73,37.75,50.03,0.50,0.00,1.00
-24.92,34.63,54.18,0.50,0.00,1.00
-24.94,31.78,51.88,0.50,0.00,1.00
-28.29,33.68,48.69,0.50,0.00,1.00
-28.99,35.48,52.29,0.50,0.00,1.00
-27.98,40.19,49.66,0.50,0.00,1.00
-27.71,40.60,53.54,0.50,0.00,1.00
-24.98,45.44,54.05,0.50,0.00,1.00
-21.44,45.17,55.58,0.50,0.00,1.00
-21.76,41.63,61.09,0.50,0.00,1.00
-20.33,46.04,61.87,0.50,0.00,1.00
-21.74,48.43,58.63,0.50,0.00,1.00
-27.04,49.91,58.42,0.50,0.00,1.00
-27.02,51.16,52.13,0.50,0.00,1.00
-29.07,55.20,55.28,0.50,0.00,1.00
-31.98,54.91,51.44,0.50,0.00,1.00
-34.98,56.72,51.53,0.50,0.00,1.00
-38.54,56.28,54.29,0.50,0.00,1.00
-42.00,57.07,52.14,0.50,0.00,1.00
-39.73,59.76,48.72,0.50,0.00,1.00
-38.71,62.08,51.86,0.50,0.00,1.00
-34.15,63.79,51.34,0.50,0.00,1.00
-36.20,63.38,56.28,0.50,0.00,1.00
-33.21,66.83,58.65,0.50,0.00,1.00
-30.52,63.91,59.74,0.50,0.00,1.00
-28.79,64.41,63.72,0.50,0.00,1.00
-27.54,61.02,65.87,0.50,0.00,1.00
-25.17,63.36,68.99,0.50,0.00,1.00
-22.21,58.35,71.59,0.50,0.00,1.00
-22.02,60.28,74.48,0.50,0.00,1.00
-18.16,57.94,75.20,0.50,0.00,1.00
-19.91,56.81,79.08,0.50,0.00,1.00
-17.83,52.67,78.67,0.50,0.00,1.00
-15.00,54.41,82.03,0.50,0.00,1.00
-12.55,52.17,78.61,0.50,0.00,1.00
-9.95,54.50,74.09,0.50,0.00,1.00
-14.47,53.95,71.15,0.50,0.00,1.00
-13.04,52.00,66.76,0.50,0.00,1.00
-16.01,54.59,65.02,0.50,0.00,1.00
-16.54,51.76,61.65,0.50,0.00,1.00
-17.17,56.42,59.53,0.50,0.00,1.00
-19.45,55.17,54.88,0.50,0.00,1.00
-19.07,57.40,51.56,0.50,0.00,1.00
-22.85,55.89,47.99,0.50,0.00,1.00
-19.00,57.47,46.02,0.50,0.00,1.00
-22.94,56.51,42.83,0.50,0.00,1.00
-22.43,55.14,39.04,0.50,0.00,1.00
-26.21,56.17,36.94,0.50,0.00,1.00
-27.09,60.52,37.29,0.50,0.00,1.00
-30.17,57.66,38.62,0.50,0.00,1.00
-28.51,54.71,40.39,0.50,0.00,1.00
-27.37,59.48,43.53,0.50,0.00,1.00
-31.59,62.83,40.82,0.50,0.00,1.00
-33.43,57.42,43.05,0.50,0.00,1.00
-31.06,55.85,45.80,0.50,0.00,1.00
-28.99,58.48,48.47,0.50,0.00,1.00
-34.22,60.99,46.79,0.50,0.00,1.00
-29.93,64.81,46.54,0.50,0.00,1.00
-29.48,68.17,43.25,0.50,0.00,1.00
-26.17,69.55,46.86,0.50,0.00,1.00
-25.32,66.50,49.39,0.50,0.00,1.00
-24.65,68.03,54.58,0.50,0.00,1.00
-21.36,64.80,54.97,0.50,0.00,1.00
-21.15,66.44,59.08,0.50,0.00,1.00
-17.94,64.30,60.40,0.50,0.00,1.00
-18.23,66.40,64.37,0.50,0.00,1.00
-14.57,66.09,66.60,0.50,0.00,1.00
-12.70,68.14,69.12,0.50,0.00,1.00
-9.89,66.21,66.65,0.50,0.00,1.00
-11.74,63.74,62.41,0.50,0.00,1.00
-13.74,67.39,60.39,0.50,0.00,1.00
-12.81,63.68,56.86,0.50,0.00,1.00
-17.98,68.71,54.06,0.50,0.00,1.00
-14.97,63.16,52.52,0.50,0.00,1.00
-18.25,65.11,48.74,0.50,0.00,1.00
-20.78,62.75,47.30,0.50,0.00,1.00
-17.63,62.62,43.71,0.50,0.00,1.00
-21.29,61.34,40.04,0.50,0.00,1.00
-19.19,58.77,37.07,0.50,0.00,1.00
-18.34,56.29,33.48,0.50,0.00,1.00
-17.57,55.07,39.50,0.50,0.00,1.00
-14.94,50.57,37.55,0.50,0.00,1.00
-17.72,46.25,36.83,0.50,0.00,1.00
-15.59,44.68,40.97,0.50,0.00,1.00
-17.99,39.46,39.87,0.50,0.00,1.00
-22.70,43.43,41.21,0.50,0.00,1.00
-21.77,46.75,42.26,0.50,0.00,1.00
-19.98,50.39,37.65,0.50,0.00,1.00
-19.68,51.00,42.28,0.50,0.00,1.00
-16.95,51.21,43.77,0.50,0.00,1.00
-19.11,52.03,49.43,0.50,0.00,1.00
-15.20,54.53,50.16,0.50,0.00,1.00
-15.48,51.37,53.65,0.50,0.00,1.00
-13.62,57.02,55.07,0.50,0.00,1.00
-9.93,55.90,61.51,0.50,0.00,1.00
-12.22,58.69,64.32,0.50,0.00,1.00
-10.03,57.35,67.82,0.50,0.00,1.00
-13.71,58.89,70.48,0.50,0.00,1.00
-10.72,60.40,74.10,0.50,0.00,1.00
-12.70,59.10,77.63,0.50,0.00,1.00
-15.17,62.80,76.66,0.50,0.00,1.00
-14.88,62.93,72.66,0.50,0.00,1.00
-18.37,64.16,70.94,0.50,0.00,1.00
-18.98,61.21,67.03,0.50,0.00,1.00
-21.30,65.17,66.06,0.50,0.00,1.00
-22.42,61.94,61.94,0.50,0.00,1.00
-25.02,67.47,60.59,0.50,0.00,1.00
-26.70,64.24,57.12,0.50,0.00,1.00
-28.86,65.02,53.18,0.50,0.00,1.00
-26.88,61.15,52.92,0.50,0.00,1.00
-25.19,59.93,50.21,0.50,0.00,1.00
-24.25,57.83,55.16,0.50,0.00,1.00
-22.77,53.69,55.14,0.50,0.00,1.00
-23.82,54.59,59.42,0.50,0.00,1.00
-22.05,54.85,62.34,0.50,0.00,1.00
-24.66,48.85,63.25,0.50,0.00,1.00
-22.18,46.80,66.89,0.50,0.00,1.00
-18.52,50.38,67.95,0.50,0.00,1.00
-15.47,47.51,67.45,0.50,0.00,1.00
-14.26,49.04,72.62,0.50,0.00,1.00
-10.19,49.81,72.24,0.50,0.00,1.00
-7.83,50.39,75.92,0.50,0.00,1.00
-5.01,51.43,72.75,0.50,0.00,1.00
-1.13,51.38,74.18,0.50,0.00,1.00
2.84,49.97,73.91,0.50,0.00,1.00
1.93,48.41,69.13,0.50,0.00,1.00
2.15,45.15,68.27,0.50,0.00,1.00
1.33,42.94,65.34,0.50,0.00,1.00
-0.75,41.77,62.12,0.50,0.00,1.00
1.52,37.22,61.51,0.50,0.00,1.00
0.32,37.23,56.99,0.50,0.00,1.00
0.45,32.49,57.37,0.50,0.00,1.00
-0.13,28.55,56.74,0.50,0.00,1.00
0.04,27.89,60.45,0.50,0.00,1.00
-1.34,25.34,62.46,0.50,0.00,1.00
-3.80,27.57,66.79,0.50,0.00,1.00
-0.76,24.88,69.21,0.50,0.00,1.00
-2.56,24.87,72.58,0.50,0.00,1.00
2.03,26.85,71.77,0.50,0.00,1.00
4.07,29.42,75.65,0.50,0.00,1.00
5.70,31.24,72.51,0.50,0.00,1.00
9.04,33.29,73.92,0.50,0.00,1.00
8.77,34.52,69.37,0.50,0.00,1.00
5.71,33.41,65.88,0.50,0.00,1.00
8.05,33.29,62.32,0.50,0.00,1.00
6.49,34.17,58.83,0.50,0.00,1.00
7.90,29.43,58.34,0.50,0.00,1.00
6.64,30.05,63.06,0.50,0.00,1.00
8.10,29.47,66.33,0.50,0.00,1.00
11.67,31.19,67.55,0.50,0.00,1.00
13.88,30.14,71.57,0.50,0.00,1.00
14.65,33.28,73.51,0.50,0.00,1.00
18.02,30.91,74.04,0.50,0.00,1.00
20.48,30.72,71.18,0.50,0.00,1.00
21.36,35.17,70.97,0.50,0.00,1.00
21.91,36.29,67.83,0.50,0.00,1.00
17.13,33.94,64.12,0.50,0.00,1.00
18.52,31.62,60.75,0.50,0.00,1.00
13.75,31.68,59.60,0.50,0.00,1.00
11.47,34.47,57.79,0.50,0.00,1.00
13.28,38.78,58.26,0.50,0.00,1.00
9.43,39.31,59.54,0.50,0.00,1.00
9.81,38.91,63.75,0.50,0.00,1.00
6.25,39.16,66.26,0.50,0.00,1.00
8.75,40.33,69.78,0.50,0.00,1.00
10.67,39.92,73.62,0.50,0.00,1.00
13.43,38.05,69.40,0.50,0.00,1.00
16.14,35.74,68.70,0.50,0.00,1.00
18.15,39.69,66.73,0.50,0.00,1.00
17.63,36.92,59.87,0.50,0.00,1.00
21.53,36.01,61.15,0.50,0.00,1.00
22.78,36.68,55.00,0.50,0.00,1.00
25.12,33.17,59.18,0.50,0.00,1.00
26.53,29.70,57.68,0.50,0.00,1.00
29.55,27.58,60.58,0.50,0.00,1.00
27.54,31.09,64.17,0.50,0.00,1.00
29.20,24.34,65.36,0.50,0.00,1.00
30.63,28.49,69.96,0.50,0.00,1.00
34.36,25.94,70.49,0.50,0.00,1.00
32.82,24.04,74.05,0.50,0.00,1.00
36.68,22.60,72.99,0.50,0.00,1.00
39.94,20.26,72.66,0.50,0.00,1.00
42.82,20.53,67.39,0.50,0.00,1.00
39.69,15.58,67.93,0.50,0.00,1.00
44.13,13.16,67.37,0.50,0.00,1.00
41.36,9.91,68.49,0.50,0.00,1.00
41.94,5.84,68.37,0.50,0.00,1.00
44.60,3.03,69.73,0.50,0.00,1.00
63.58,0.81,84.67,0.50,0.00,1.00
28.92,7.66,69.91,0.50,0.00,1.00
29.59,20.43,59.78,0.50,0.00,1.00
31.50,28.71,57.97,0.50,0.00,1.00
33.17,26.37,55.88,0.50,0.00,1.00
15.64,23.32,59.82,0.50,0.00,1.00
-38.33,48.06,62.67,0.50,0.00,1.00
-26.44,45.56,58.07,0.50,0.00,1.00
79.28,26.51,66.50,0.50,1.00,0.70
76.01,30.11,66.94,0.50,1.00,0.70
71.85,28.86,67.93,0.50,1.00,0.70
70.75,33.29,66.40,0.50,1.00,0.70
66.24,32.33,66.21,0.50,1.00,0.70
64.07,35.18,64.12,0.50,1.00,0.70
61.55,38.97,64.75,0.50,1.00,0.70
60.88,40.22,58.15,0.50,1.00,0.70
62.81,43.48,58.83,0.50,1.00,0.70
60.60,44.89,55.46,0.50,1.00,0.70
61.06,47.82,52.96,0.50,1.00,0.70
58.12,48.86,55.31,0.50,1.00,0.70
57.97,53.20,56.83,0.50,1.00,0.70
54.50,51.03,56.67,0.50,1.00,0.70
52.30,52.97,60.45,0.50,1.00,0.70
49.49,50.44,62.86,0.50,1.00,0.70
47.39,52.71,65.65,0.50,1.00,0.70
47.23,49.26,68.89,0.50,1.00,0.70
44.54,48.95,72.37,0.50,1.00,0.70
47.99,47.97,74.44,0.50,1.00,0.70
51.59,50.16,71.28,0.50,1.00,0.70
49.15,54.22,69.57,0.50,1.00,0.70
52.74,55.00,66.31,0.50,1.00,0.70
53.07,49.89,65.36,0.50,1.00,0.70
56.45,50.06,62.51,0.50,1.00,0.70
54.30,47.18,60.15,0.50,1.00,0.70
56.17,44.27,57.79,0.50,1.00,0.70
53.46,42.81,55.82,0.50,1.00,0.70
50.10,47.17,55.57,0.50,1.00,0.70
46.15,45.74,54.42,0.50,1.00,0.70
43.21,49.60,53.75,0.50,1.00,0.70
39.69,47.17,56.14,0.50,1.00,0.70
38.77,52.24,54.43,0.50,1.00,0.70
37.78,51.87,49.47,0.50,1.00,0.70
39.96,55.99,50.05,0.50,1.00,0.70
38.39,55.04,46.30,0.50,1.00,0.70
36.03,59.17,45.17,0.50,1.00,0.70
35.70,57.06,39.90,0.50,1.00,0.70
34.94,60.71,39.68,0.50,1.00,0.70
33.15,59.42,36.20,0.50,1.00,0.70
28.74,59.09,36.89,0.50,1.00,0.70
28.77,54.52,36.57,0.50,1.00,0.70
26.99,51.52,34.23,0.50,1.00,0.70
24.48,50.21,39.05,0.50,1.00,0.70
22.16,45.79,39.52,0.50,1.00,0.70
24.38,46.33,34.56,0.50,1.00,0.70
21.25,48.25,34.08,0.50,1.00,0.70
22.17,51.90,32.60,0.50,1.00,0.70
22.02,55.16,33.84,0.50,1.00,0.70
18.17,58.41,33.00,0.50,1.00,0.70
20.65,61.28,30.18,0.50,1.00,0.70
17.64,64.38,32.76,0.50,1.00,0.70
20.50,67.46,32.66,0.50,1.00,0.70
19.69,71.19,32.72,0.50,1.00,0.70
16.24,68.67,33.39,0.50,1.00,0.70
14.55,67.78,37.49,0.50,1.00,0.70
11.74,64.93,37.14,0.50,1.00,0.70
9.67,67.90,35.36,0.50,1.00,0.70
11.89,67.37,32.57,0.50,1.00,0.70
10.89,61.75,31.57,0.50,1.00,0.70
7.28,63.45,33.79,0.50,1.00,0.70
5.55,67.14,32.56,0.50,1.00,0.70
8.09,67.73,29.01,0.50,1.00,0.70
10.30,71.35,29.65,0.50,1.00,0.70
10.07,72.46,26.07,0.50,1.00,0.70
13.43,74.00,27.84,0.50,1.00,0.70
15.33,69.05,27.36,0.50,1.00,0.70
15.01,68.86,22.24,0.50,1.00,0.70
18.62,65.68,25.71,0.50,1.00,0.70
15.15,63.46,26.72,0.50,1.00,0.70
13.82,61.50,22.01,0.50,1.00,0.70
14.65,57.24,23.18,0.50,1.00,0.70
15.85,56.94,27.15,0.50,1.00,0.70
15.40,50.82,27.53,0.50,1.00,0.70
16.53,50.87,30.99,0.50,1.00,0.70
15.58,54.51,34.45,0.50,1.00,0.70
18.99,51.23,38.01,0.50,1.00,0.70
21.37,55.26,38.77,0.50,1.00,0.70
17.78,58.75,38.38,0.50,1.00,0.70
21.53,61.06,36.86,0.50,1.00,0.70
19.36,64.85,38.26,0.50,1.00,0.70
22.80,68.95,36.81,0.50,1.00,0.70
22.80,70.31,41.05,0.50,1.00,0.70
22.29,74.07,37.73,0.50,1.00,0.70
18.23,73.14,37.81,0.50,1.00,0.70
17.60,78.02,35.55,0.50,1.00,0.70
14.74,75.60,32.42,0.50,1.00,0.70
12.04,72.21,34.34,0.50,1.00,0.70
9.12,73.80,35.42,0.50,1.00,0.70
6.93,75.89,32.17,0.50,1.00,0.70
2.30,78.19,33.45,0.50,1.00,0.70
4.18,78.48,36.95,0.50,1.00,0.70
3.79,75.23,40.01,0.50,1.00,0.70
2.84,72.15,44.03,0.50,1.00,0.70
4.62,68.25,40.70,0.50,1.00,0.70
2.02,66.86,43.99,0.50,1.00,0.70
3.15,64.09,46.20,0.50,1.00,0.70
9.09,66.74,42.99,0.50,1.00,0.70
8.94,63.89,47.38,0.50,1.00,0.70
6.56,59.10,46.68,0.50,1.00,0.70
7.03,59.80,41.39,0.50,1.00,0.70
12.29,62.57,42.78,0.50,1.00,0.70
11.66,56.76,45.80,0.50,1.00,0.70
7.48,55.26,42.58,0.50,1.00,0.70
10.57,57.42,38.51,0.50,1.00,0.70
14.29,54.88,40.68,0.50,1.00,0.70
14.07,51.30,39.85,0.50,1.00,0.70
12.12,51.25,35.93,0.50,1.00,0.70
12.25,47.71,33.34,0.50,1.00,0.70
9.95,49.49,31.22,0.50,1.00,0.70
8.89,54.08,31.48,0.50,1.00,0.70
7.06,53.16,26.08,0.50,1.00,0.70
7.34,59.12,26.15,0.50,1.00,0.70
1.30,55.50,25.87,0.50,1.00,0.70
-0.99,59.56,21.61,0.50,1.00,0.70
-3.34,58.83,26.80,0.50,1.00,0.70
-6.53,60.33,26.04,0.50,1.00,0.70
-5.63,60.29,20.54,0.50,1.00,0.70
-3.73,65.93,19.96,0.50,1.00,0.70
-6.18,63.72,15.47,0.50,1.00,0.70
-10.54,63.69,17.40,0.50,1.00,0.70
-9.83,62.87,21.54,0.50,1.00,0.70
-8.63,66.35,22.73,0.50,1.00,0.70
-14.19,66.95,20.52,0.50,1.00,0.70
-16.12,69.46,23.05,0.50,1.00,0.70
-12.90,70.59,24.35,0.50,1.00,0.70
-9.96,74.73,21.96,0.50,1.00,0.70
-6.04,73.02,21.88,0.50,1.00,0.70
-4.65,76.62,20.83,0.50,1.00,0.70
-2.17,76.06,24.03,0.50,1.00,0.70
0.71,78.15,24.05,0.50,1.00,0.70
3.21,79.83,27.25,0.50,1.00,0.70
5.98,82.37,27.32,0.50,1.00,0.70
7.17,80.19,30.42,0.50,1.00,0.70
7.49,77.43,27.55,0.50,1.00,0.70
9.79,79.18,24.16,0.50,1.00,0.70
12.86,75.31,22.24,0.50,1.00,0.70
14.62,79.45,19.79,0.50,1.00,0.70
11.04,81.84,19.74,0.50,1.00,0.70
7.71,81.20,16.96,0.50,1.00,0.70
5.71,79.84,21.75,0.50,1.00,0.70
5.52,76.10,23.69,0.50,1.00,0.70
2.76,74.14,27.38,0.50,1.00,0.70
4.71,71.18,29.58,0.50,1.00,0.70
7.62,67.42,25.40,0.50,1.00,0.70
4.32,64.86,28.00,0.50,1.00,0.70
0.93,68.09,28.88,0.50,1.00,0.70
-3.34,69.09,27.11,0.50,1.00,0.70
-3.60,75.27,28.03,0.50,1.00,0.70
-8.61,70.99,27.46,0.50,1.00,0.70
-8.97,75.81,26.27,0.50,1.00,0.70
-12.37,76.69,25.59,0.50,1.00,0.70
-15.98,75.15,22.56,0.50,1.00,0.70
-16.02,78.50,20.13,0.50,1.00,0.70
-18.95,79.59,23.52,0.50,1.00,0.70
-19.52,76.55,24.54,0.50,1.00,0.70
-15.80,73.80,29.10,0.50,1.00,0.70
-19.12,71.27,27.23,0.50,1.00,0.70
-20.75,67.71,30.60,0.50,1.00,0.70
-16.94,66.04,29.28,0.50,1.00,0.70
-16.59,61.93,29.79,0.50,1.00,0.70
-12.87,60.98,27.32,0.50,1.00,0.70
-11.72,56.61,29.55,0.50,1.00,0.70
-6.42,54.50,29.08,0.50,1.00,0.70
-8.26,51.24,29.96,0.50,1.00,0.70
-6.82,47.92,32.08,0.50,1.00,0.70
-4.89,48.80,27.76,0.50,1.00,0.70
0.72,48.50,27.90,0.50,1.00,0.70
-0.50,44.41,29.99,0.50,1.00,0.70
2.94,46.21,32.08,0.50,1.00,0.70
2.26,49.47,36.53,0.50,1.00,0.70
0.49,53.20,33.28,0.50,1.00,0.70
2.73,57.39,34.86,0.50,1.00,0.70
-1.90,58.28,35.67,0.50,1.00,0.70
-0.11,62.16,35.17,0.50,1.00,0.70
-4.63,63.79,37.49,0.50,1.00,0.70
-4.37,68.56,35.89,0.50,1.00,0.70
-5.90,71.49,37.93,0.50,1.00,0.70
-6.27,76.25,34.72,0.50,1.00,0.70
-5.77,76.76,39.48,0.50,1.00,0.70
-7.59,80.76,36.88,0.50,1.00,0.70
-5.63,84.41,36.27,0.50,1.00,0.70
-9.00,87.51,35.84,0.50,1.00,0.70
-12.48,86.60,37.58,0.50,1.00,0.70
-11.96,86.83,33.09,0.50,1.00,0.70
-8.55,85.65,32.31,0.50,1.00,0.70
-12.42,81.49,34.31,0.50,1.00,0.70
-15.82,84.56,32.68,0.50,1.00,0.70
-12.09,83.50,28.47,0.50,1.00,0.70
-10.45,80.31,28.75,0.50,1.00,0.70
-11.20,77.12,31.26,0.50,1.00,0.70
-16.85,79.59,29.37,0.50,1.00,0.70
-18.70,77.08,33.56,0.50,1.00,0.70
-18.75,80.79,36.40,0.50,1.00,0.70
-17.70,78.61,40.95,0.50,1.00,0.70
-16.83,74.62,38.50,0.50,1.00,0.70
-17.05,69.11,39.22,0.50,1.00,0.70
-12.59,69.48,38.88,0.50,1.00,0.70
-13.19,65.40,39.37,0.50,1.00,0.70
-10.07,62.50,38.49,0.50,1.00,0.70
-12.24,58.75,39.14,0.50,1.00,0.70
-9.92,55.50,40.23,0.50,1.00,0.70
-11.32,52.03,40.95,0.50,1.00,0.70
-10.12,53.13,45.10,0.50,1.00,0.70
-8.58,57.32,45.10,0.50,1.00,0.70
-12.59,60.59,44.22,0.50,1.00,0.70
-7.24,62.33,44.19,0.50,1.00,0.70
-13.14,67.14,45.81,0.50,1.00,0.70
-9.49,68.14,41.89,0.50,1.00,0.70
-10.65,73.43,44.25,0.50,1.00,0.70
-10.71,75.76,41.31,0.50,1.00,0.70
-7.77,78.03,44.29,0.50,1.00,0.70
-9.63,82.76,41.36,0.50,1.00,0.70
-5.48,83.57,41.53,0.50,1.00,0.70
-5.73,87.47,42.13,0.50,1.00,0.70
-1.31,82.89,42.18,0.50,1.00,0.70
2.54,86.18,42.80,0.50,1.00,0.70
5.89,87.79,38.04,0.50,1.00,0.70
7.73,83.92,38.85,0.50,1.00,0.70
10.10,83.36,34.55,0.50,1.00,0.70
5.33,84.79,31.48,0.50,1.00,0.70
0.81,83.73,31.61,0.50,1.00,0.70
2.20,83.97,37.04,0.50,1.00,0.70
-2.08,81.70,37.29,0.50,1.00,0.70
0.87,80.35,39.13,0.50,1.00,0.70
-0.91,75.17,36.75,0.50,1.00,0.70
-2.28,72.65,40.24,0.50,1.00,0.70
1.59,70.45,37.63,0.50,1.00,0.70
-2.69,67.15,41.07,0.50,1.00,0.70
1.53,61.34,41.54,0.50,1.00,0.70
-1.27,58.08,39.95,0.50,1.00,0.70
0.99,54.66,39.47,0.50,1.00,0.70
-3.17,52.65,36.41,0.50,1.00,0.70
-2.27,48.39,39.20,0.50,1.00,0.70
-3.26,45.83,36.67,0.50,1.00,0.70
-7.42,46.15,37.54,0.50,1.00,0.70
-7.59,49.34,36.79,0.50,1.00,0.70
-10.11,52.54,35.10,0.50,1.00,0.70
-8.60,56.55,34.55,0.50,1.00,0.70
-12.60,58.51,34.59,0.50,1.00,0.70
-10.14,62.34,33.03,0.50,1.00,0.70
-15.87,64.53,34.89,0.50,1.00,0.70
-15.03,68.79,33.31,0.50,1.00,0.70
-17.64,71.73,34.31,0.50,1.00,0.70
-13.21,72.98,33.77,0.50,1.00,0.70
-10.48,74.76,35.43,0.50,1.00,0.70
-8.94,69.74,33.00,0.50,1.00,0.70
-4.73,70.00,32.12,0.50,1.00,0.70
-4.79,66.42,30.22,0.50,1.00,0.70
-2.50,63.94,29.76,0.50,1.00,0.70
0.90,64.59,24.27,0.50,1.00,0.70
2.87,61.26,25.16,0.50,1.00,0.70
1.48,57.70,28.76,0.50,1.00,0.70
4.94,57.57,30.59,0.50,1.00,0.70
4.65,52.02,30.53,0.50,1.00,0.70
5.61,51.20,34.61,0.50,1.00,0.70
7.79,47.63,35.36,0.50,1.00,0.70
7.11,49.64,40.33,0.50,1.00,0.70
9.50,47.27,43.19,0.50,1.00,0.70
13.13,46.39,45.10,0.50,1.00,0.70
13.90,51.19,45.79,0.50,1.00,0.70
16.73,53.50,44.77,0.50,1.00,0.70
17.26,56.79,44.07,0.50,1.00,0.70
17.86,60.55,43.39,0.50,1.00,0.70
22.56,60.51,42.25,0.50,1.00,0.70
21.95,65.25,42.64,0.50,1.00,0.70
25.91,64.34,40.11,0.50,1.00,0.70
28.56,67.37,38.22,0.50,1.00,0.70
30.01,63.94,36.81,0.50,1.00,0.70
31.41,62.95,33.86,0.50,1.00,0.70
28.43,58.65,32.13,0.50,1.00,0.70
31.84,56.47,31.68,0.50,1.00,0.70
30.84,53.02,29.57,0.50,1.00,0.70
31.54,51.48,34.75,0.50,1.00,0.70
30.30,47.13,35.97,0.50,1.00,0.70
30.53,49.40,39.54,0.50,1.00,0.70
30.00,46.42,41.86,0.50,1.00,0.70
29.39,51.36,44.62,0.50,1.00,0.70
27.81,54.91,42.35,0.50,1.00,0.70
28.90,57.64,45.42,0.50,1.00,0.70
27.26,61.22,45.54,0.50,1.00,0.70
32.16,61.94,45.87,0.50,1.00,0.70
31.68,58.23,42.93,0.50,1.00,0.70
32.93,55.05,42.01,0.50,1.00,0.70
33.54,52.44,45.23,0.50,1.00,0.70
36.38,48.53,45.24,0.50,1.00,0.70
32.59,47.11,46.69,0.50,1.00,0.70
35.63,44.87,48.41,0.50,1.00,0.70
37.25,47.21,51.41,0.50,1.00,0.70
33.98,46.27,54.43,0.50,1.00,0.70
33.56,48.85,56.82,0.50,1.00,0.70
31.89,53.63,52.63,0.50,1.00,0.70
35.43,57.23,53.57,0.50,1.00,0.70
33.14,58.19,49.84,0.50,1.00,0.70
28.83,60.59,50.40,0.50,1.00,0.70
27.35,59.61,53.31,0.50,1.00,0.70
24.43,59.14,50.35,0.50,1.00,0.70
25.06,54.92,49.43,0.50,1.00,0.70
22.93,54.49,45.19,0.50,1.00,0.70
24.14,50.40,46.21,0.50,1.00,0.70
24.72,46.05,46.48,0.50,1.00,0.70
27.57,49.54,49.43,0.50,1.00,0.70
30.43,49.60,51.47,0.50,1.00,0.70
28.20,50.02,55.90,0.50,1.00,0.70
30.18,56.79,55.90,0.50,1.00,0.70
33.15,55.27,58.29,0.50,1.00,0.70
33.77,60.76,60.85,0.50,1.00,0.70
37.54,56.77,59.86,0.50,1.00,0.70
41.05,58.08,58.87,0.50,1.00,0.70
43.75,54.75,58.71,0.50,1.00,0.70
40.48,51.02,58.82,0.50,1.00,0.70
46.60,50.96,57.05,0.50,1.00,0.70
44.42,45.18,59.19,0.50,1.00,0.70
48.31,43.81,60.62,0.50,1.00,0.70
49.57,40.97,57.59,0.50,1.00,0.70
52.47,41.19,60.34,0.50,1.00,0.70
56.30,40.79,61.92,0.50,1.00,0.70
57.09,45.52,66.31,0.50,1.00,0.70
59.80,46.48,61.18,0.50,1.00,0.70
62.73,45.94,64.79,0.50,1.00,0.70
65.27,47.53,61.68,0.50,1.00,0.70
69.20,47.76,62.41,0.50,1.00,0.70
71.74,44.90,59.43,0.50,1.00,0.70
12.57,53.63,22.83,0.50,1.00,0.70
70.78,34.68,99.77,1.00,0.00,0.00
66.42,34.76,98.09,1.00,0.00,0.00
65.52,37.42,94.28,1.00,0.00,0.00
61.47,37.31,95.05,1.00,0.00,0.00
59.45,38.48,91.15,1.00,0.00,0.00
55.90,40.75,92.40,1.00,0.00,0.00
51.39,40.32,92.21,1.00,0.00,0.00
50.50,46.68,93.90,1.00,0.00,0.00
48.15,44.70,96.77,1.00,0.00,0.00
45.14,47.67,96.96,1.00,0.00,0.00
42.99,49.22,100.27,1.00,0.00,0.00
40.57,47.41,96.98,1.00,0.00,0.00
36.56,46.59,97.80,1.00,0.00,0.00
36.49,48.41,94.33,1.00,0.00,0.00
34.55,44.40,92.15,1.00,0.00,0.00
35.22,43.91,87.91,1.00,0.00,0.00
32.61,41.36,86.18,1.00,0.00,0.00
35.52,38.78,83.53,1.00,0.00,0.00
34.35,36.45,80.12,1.00,0.00,0.00
36.40,33.36,81.73,1.00,0.00,0.00
36.66,35.05,86.69,1.00,0.00,0.00
31.22,37.56,87.27,1.00,0.00,0.00
32.23,39.11,91.15,1.00,0.00,0.00
37.11,39.59,89.72,1.00,0.00,0.00
38.79,41.13,93.41,1.00,0.00,0.00
40.01,44.69,91.15,1.00,0.00,0.00
43.34,47.10,92.00,1.00,0.00,0.00
44.17,49.60,89.99,1.00,0.00,0.00
39.12,50.75,88.18,1.00,0.00,0.00
37.56,53.01,84.65,1.00,0.00,0.00
32.73,54.07,85.11,1.00,0.00,0.00
33.84,53.39,80.61,1.00,0.00,0.00
28.56,53.70,82.36,1.00,0.00,0.00
27.73,59.35,82.41,1.00,0.00,0.00
25.46,57.20,86.38,1.00,0.00,0.00
25.50,60.89,86.88,1.00,0.00,0.00
21.37,63.41,86.23,1.00,0.00,0.00
23.50,68.09,86.64,1.00,0.00,0.00
19.53,67.96,87.63,1.00,0.00,0.00
19.81,71.36,87.59,1.00,0.00,0.00
18.11,72.05,82.74,1.00,0.00,0.00
21.85,74.35,80.88,1.00,0.00,0.00
23.25,76.77,78.15,1.00,0.00,0.00
23.32,73.02,74.01,1.00,0.00,0.00
26.61,73.69,71.07,1.00,0.00,0.00
26.04,78.01,74.46,1.00,0.00,0.00
23.25,78.26,71.96,1.00,0.00,0.00
20.31,79.36,74.97,1.00,0.00,0.00
17.59,77.66,76.22,1.00,0.00,0.00
12.71,78.86,74.70,1.00,0.00,0.00
12.45,80.22,80.06,1.00,0.00,0.00
8.04,79.36,78.06,1.00,0.00,0.00
6.82,77.43,81.48,1.00,0.00,0.00
3.29,77.70,83.40,1.00,0.00,0.00
3.57,78.94,78.81,1.00,0.00,0.00
2.77,77.09,75.43,1.00,0.00,0.00
4.26,76.24,71.83,1.00,0.00,0.00
0.60,77.99,71.39,1.00,0.00,0.00
0.82,81.20,72.89,1.00,0.00,0.00
6.34,81.30,71.30,1.00,0.00,0.00
3.30,81.23,68.31,1.00,0.00,0.00
-1.31,82.02,68.87,1.00,0.00,0.00
-1.10,85.05,72.04,1.00,0.00,0.00
-2.12,83.07,75.54,1.00,0.00,0.00
-3.42,85.70,77.59,1.00,0.00,0.00
-1.18,83.77,80.91,1.00,0.00,0.00
2.17,84.28,76.88,1.00,0.00,0.00
1.89,89.05,78.71,1.00,0.00,0.00
6.15,86.36,80.51,1.00,0.00,0.00
7.71,85.35,76.59,1.00,0.00,0.00
8.79,89.99,74.58,1.00,0.00,0.00
13.39,90.17,73.92,1.00,0.00,0.00
13.87,85.58,73.84,1.00,0.00,0.00
19.03,86.82,70.65,1.00,0.00,0.00
18.00,82.29,70.69,1.00,0.00,0.00
15.22,79.03,70.05,1.00,0.00,0.00
19.09,75.13,71.46,1.00,0.00,0.00
16.93,72.89,74.58,1.00,0.00,0.00
11.96,74.57,73.48,1.00,0.00,0.00
12.00,75.03,78.20,1.00,0.00,0.00
7.78,73.87,77.43,1.00,0.00,0.00
6.60,72.54,82.72,1.00,0.00,0.00
4.66,68.62,81.30,1.00,0.00,0.00
1.59,69.10,83.66,1.00,0.00,0.00
0.64,73.42,82.28,1.00,0.00,0.00
-4.01,71.98,81.43,1.00,0.00,0.00
-2.15,77.23,79.18,1.00,0.00,0.00
-3.01,76.01,75.40,1.00,0.00,0.00
-5.91,75.46,72.97,1.00,0.00,0.00
-7.58,79.11,74.85,1.00,0.00,0.00
-12.28,79.49,71.40,1.00,0.00,0.00
-11.57,75.87,71.99,1.00,0.00,0.00
-8.92,73.87,68.99,1.00,0.00,0.00
-6.51,70.64,65.98,1.00,0.00,0.00
-2.33,74.72,66.45,1.00,0.00,0.00
-2.25,72.30,62.97,1.00,0.00,0.00
0.49,69.22,61.06,1.00,0.00,0.00
1.49,71.59,67.42,1.00,0.00,0.00
3.21,67.67,66.17,1.00,0.00,0.00
6.31,68.95,61.90,1.00,0.00,0.00
5.68,74.33,64.27,1.00,0.00,0.00
6.76,71.23,69.67,1.00,0.00,0.00
10.98,69.40,64.95,1.00,0.00,0.00
9.92,73.41,62.13,1.00,0.00,0.00
10.18,76.69,66.13,1.00,0.00,0.00
13.60,73.34,67.87,1.00,0.00,0.00
16.35,74.86,65.64,1.00,0.00,0.00
15.76,79.05,65.32,1.00,0.00,0.00
18.91,81.44,64.26,1.00,0.00,0.00
17.18,84.79,63.31,1.00,0.00,0.00
12.91,84.40,66.31,1.00,0.00,0.00
13.67,90.15,66.08,1.00,0.00,0.00
7.48,89.16,67.64,1.00,0.00,0.00
7.38,91.19,62.18,1.00,0.00,0.00
2.85,94.36,63.85,1.00,0.00,0.00
2.34,90.77,59.46,1.00,0.00,0.00
-0.92,92.98,58.15,1.00,0.00,0.00
-1.43,96.48,61.67,1.00,0.00,0.00
-6.01,95.03,65.36,1.00,0.00,0.00
-5.36,100.85,64.30,1.00,0.00,0.00
-5.88,101.62,60.34,1.00,0.00,0.00
-4.32,98.18,57.78,1.00,0.00,0.00
-7.13,94.69,56.96,1.00,0.00,0.00
-9.69,98.88,54.17,1.00,0.00,0.00
-13.92,99.07,54.27,1.00,0.00,0.00
-12.87,94.76,57.82,1.00,0.00,0.00
-13.44,94.72,61.72,1.00,0.00,0.00
-11.86,96.25,65.16,1.00,0.00,0.00
-11.82,94.58,68.73,1.00,0.00,0.00
-13.86,91.30,69.22,1.00,0.00,0.00
-12.51,91.20,72.52,1.00,0.00,0.00
-14.79,87.75,73.85,1.00,0.00,0.00
-12.86,85.11,74.96,1.00,0.00,0.00
-12.38,82.31,77.69,1.00,0.00,0.00
-9.20,84.27,76.85,1.00,0.00,0.00
-8.26,85.77,80.60,1.00,0.00,0.00
-3.58,88.19,82.36,1.00,0.00,0.00
-5.21,91.11,85.45,1.00,0.00,0.00
-9.69,90.13,85.14,1.00,0.00,0.00
-10.53,92.60,81.80,1.00,0.00,0.00
-11.51,88.95,78.98,1.00,0.00,0.00
-8.20,89.20,76.07,1.00,0.00,0.00
-8.09,88.03,70.68,1.00,0.00,0.00
-5.36,84.95,70.73,1.00,0.00,0.00
-1.61,89.43,72.04,1.00,0.00,0.00
0.32,87.46,68.07,1.00,0.00,0.00
-4.05,86.51,65.76,1.00,0.00,0.00
-6.27,90.18,63.49,1.00,0.00,0.00
-12.17,87.79,66.61,1.00,0.00,0.00
-11.57,90.17,61.36,1.00,0.00,0.00
-16.00,90.95,63.52,1.00,0.00,0.00
-18.49,93.15,62.34,1.00,0.00,0.00
-18.11,95.89,59.69,1.00,0.00,0.00
-22.10,98.68,61.28,1.00,0.00,0.00
-23.72,95.92,57.85,1.00,0.00,0.00
-21.83,94.58,54.80,1.00,0.00,0.00
-17.12,90.56,56.30,1.00,0.00,0.00
-16.34,93.00,53.14,1.00,0.00,0.00
-14.52,89.62,49.62,1.00,0.00,0.00
-10.85,90.31,51.37,1.00,0.00,0.00
-7.41,90.64,48.70,1.00,0.00,0.00
-4.15,91.88,52.26,1.00,0.00,0.00
-0.40,90.06,50.81,1.00,0.00,0.00
4.54,89.81,54.37,1.00,0.00,0.00
6.16,90.23,51.23,1.00,0.00,0.00
9.71,87.31,51.90,1.00,0.00,0.00
11.23,92.07,52.01,1.00,0.00,0.00
13.13,89.96,55.53,1.00,0.00,0.00
17.90,87.53,52.69,1.00,0.00,0.00
15.19,86.56,57.74,1.00,0.00,0.00
12.49,82.47,55.75,1.00,0.00,0.00
8.09,84.40,57.56,1.00,0.00,0.00
5.96,81.89,61.03,1.00,0.00,0.00
1.81,82.75,58.80,1.00,0.00,0.00
-0.16,81.84,62.74,1.00,0.00,0.00
-3.58,80.39,58.58,1.00,0.00,0.00
-7.69,81.17,61.92,1.00,0.00,0.00
-10.95,79.26,61.13,1.00,0.00,0.00
-15.44,80.60,64.55,1.00,0.00,0.00
-15.51,76.09,63.13,1.00,0.00,0.00
-19.79,78.25,64.93,1.00,0.00,0.00
-21.78,76.62,68.13,1.00,0.00,0.00
-25.16,79.48,67.33,1.00,0.00,0.00
-26.60,78.21,63.19,1.00,0.00,0.00
-26.63,82.42,64.83,1.00,0.00,0.00
-22.82,83.13,66.37,1.00,0.00,0.00
-21.50,83.43,60.99,1.00,0.00,0.00
-26.16,85.86,59.61,1.00,0.00,0.00
-23.70,87.96,64.75,1.00,0.00,0.00
-20.03,88.17,64.33,1.00,0.00,0.00
-17.96,86.14,61.38,1.00,0.00,0.00
-22.75,89.25,58.33,1.00,0.00,0.00
-22.70,85.15,55.12,1.00,0.00,0.00
-24.58,81.97,53.58,1.00,0.00,0.00
-21.40,79.72,53.20,1.00,0.00,0.00
-17.15,80.52,53.56,1.00,0.00,0.00
-14.39,83.28,49.55,1.00,0.00,0.00
-11.69,80.76,53.96,1.00,0.00,0.00
-8.55,81.36,50.74,1.00,0.00,0.00
-4.80,80.27,51.93,1.00,0.00,0.00
-2.62,81.25,48.18,1.00,0.00,0.00
1.21,80.45,48.53,1.00,0.00,0.00
3.84,80.18,45.08,1.00,0.00,0.00
3.80,76.62,47.68,1.00,0.00,0.00
-0.04,76.03,51.57,1.00,0.00,0.00
-2.98,75.62,48.17,1.00,0.00,0.00
-4.62,73.91,52.74,1.00,0.00,0.00
-10.80,76.89,49.44,1.00,0.00,0.00
-9.35,76.44,55.06,1.00,0.00,0.00
-14.92,75.27,55.34,1.00,0.00,0.00
-16.79,77.15,58.05,1.00,0.00,0.00
-16.72,72.70,58.71,1.00,0.00,0.00
-21.14,75.10,61.22,1.00,0.00,0.00
-21.90,72.51,64.68,1.00,0.00,0.00
-24.52,72.97,68.20,1.00,0.00,0.00
-18.44,72.04,68.05,1.00,0.00,0.00
-18.02,70.59,73.00,1.00,0.00,0.00
-19.83,74.23,77.21,1.00,0.00,0.00
-14.98,74.56,77.91,1.00,0.00,0.00
-13.66,77.04,81.66,1.00,0.00,0.00
-18.45,80.42,78.44,1.00,0.00,0.00
-16.28,79.99,74.42,1.00,0.00,0.00
-19.44,76.04,73.18,1.00,0.00,0.00
-16.03,75.94,69.88,1.00,0.00,0.00
-13.89,73.63,68.79,1.00,0.00,0.00
-10.51,78.21,66.70,1.00,0.00,0.00
-8.83,75.23,63.40,1.00,0.00,0.00
-5.58,77.95,66.02,1.00,0.00,0.00
-4.74,76.08,60.06,1.00,0.00,0.00
2.41,75.59,60.09,1.00,0.00,0.00
3.18,78.78,56.29,1.00,0.00,0.00
7.65,78.75,57.01,1.00,0.00,0.00
7.02,82.51,54.01,1.00,0.00,0.00
11.26,79.83,50.62,1.00,0.00,0.00
12.41,83.36,49.63,1.00,0.00,0.00
8.99,85.33,47.37,1.00,0.00,0.00
7.27,82.44,48.40,1.00,0.00,0.00
3.46,85.92,48.88,1.00,0.00,0.00
0.50,84.11,52.21,1.00,0.00,0.00
-2.56,85.36,49.09,1.00,0.00,0.00
-4.27,85.87,53.48,1.00,0.00,0.00
-9.31,85.55,49.25,1.00,0.00,0.00
-12.33,86.61,53.18,1.00,0.00,0.00
-17.02,86.47,52.87,1.00,0.00,0.00
-14.92,85.06,56.54,1.00,0.00,0.00
-14.91,82.87,59.74,1.00,0.00,0.00
-9.69,84.91,58.27,1.00,0.00,0.00
-8.67,84.69,62.65,1.00,0.00,0.00
-5.86,87.59,60.61,1.00,0.00,0.00
-2.52,87.50,60.16,1.00,0.00,0.00
-2.01,91.86,65.41,1.00,0.00,0.00
2.48,90.64,66.13,1.00,0.00,0.00
5.38,87.85,62.36,1.00,0.00,0.00
7.13,84.99,64.09,1.00,0.00,0.00
11.90,86.18,61.14,1.00,0.00,0.00
13.21,82.12,60.90,1.00,0.00,0.00
16.61,81.26,59.40,1.00,0.00,0.00
14.49,76.48,59.37,1.00,0.00,0.00
17.30,73.54,58.80,1.00,0.00,0.00
19.97,70.57,60.78,1.00,0.00,0.00
17.01,70.20,64.22,1.00,0.00,0.00
15.84,69.90,67.86,1.00,0.00,0.00
13.74,69.95,70.69,1.00,0.00,0.00
10.93,70.10,73.16,1.00,0.00,0.00
12.96,68.93,77.41,1.00,0.00,0.00
8.52,67.41,78.89,1.00,0.00,0.00
11.30,68.38,82.75,1.00,0.00,0.00
9.48,69.47,86.25,1.00,0.00,0.00
13.89,70.93,86.00,1.00,0.00,0.00
15.90,73.28,87.64,1.00,0.00,0.00
17.36,77.46,84.50,1.00,0.00,0.00
20.77,76.96,86.79,1.00,0.00,0.00
23.78,79.85,85.38,1.00,0.00,0.00
25.75,76.10,82.43,1.00,0.00,0.00
28.13,74.85,79.07,1.00,0.00,0.00
26.62,71.32,77.92,1.00,0.00,0.00
28.68,68.95,76.03,1.00,0.00,0.00
23.86,66.77,76.26,1.00,0.00,0.00
20.09,67.76,78.25,1.00,0.00,0.00
18.49,64.66,80.06,1.00,0.00,0.00
14.79,64.94,80.90,1.00,0.00,0.00
16.58,62.67,84.84,1.00,0.00,0.00
19.44,66.23,83.14,1.00,0.00,0.00
22.76,67.25,82.32,1.00,0.00,0.00
24.70,64.72,79.87,1.00,0.00,0.00
29.66,65.30,79.60,1.00,0.00,0.00
30.12,63.82,75.82,1.00,0.00,0.00
32.70,62.15,78.34,1.00,0.00,0.00
32.26,58.44,79.28,1.00,0.00,0.00
31.63,55.84,75.87,1.00,0.00,0.00
29.03,53.87,76.23,1.00,0.00,0.00
24.18,57.37,78.97,1.00,0.00,0.00
22.91,54.49,83.01,1.00,0.00,0.00
20.38,58.18,82.49,1.00,0.00,0.00
16.51,58.91,80.35,1.00,0.00,0.00
16.51,56.86,76.80,1.00,0.00,0.00
15.78,60.86,75.58,1.00,0.00,0.00
19.16,62.75,74.37,1.00,0.00,0.00
19.35,66.92,73.17,1.00,0.00,0.00
23.20,66.10,71.06,1.00,0.00,0.00
27.13,66.03,70.85,1.00,0.00,0.00
25.16,62.17,73.80,1.00,0.00,0.00
26.75,59.66,75.36,1.00,0.00,0.00
24.95,56.07,71.83,1.00,0.00,0.00
20.49,54.61,77.20,1.00,0.00,0.00
23.09,52.08,77.97,1.00,0.00,0.00
17.92,48.88,80.59,1.00,0.00,0.00
23.28,48.85,81.40,1.00,0.00,0.00
24.71,48.35,84.80,1.00,0.00,0.00
29.11,46.42,85.86,1.00,0.00,0.00
29.88,49.40,81.52,1.00,0.00,0.00
34.09,49.96,86.44,1.00,0.00,0.00
37.56,48.64,81.81,1.00,0.00,0.00
40.66,46.49,84.40,1.00,0.00,0.00
43.55,49.53,85.07,1.00,0.00,0.00
44.64,46.43,87.04,1.00,0.00,0.00
46.48,43.99,89.25,1.00,0.00,0.00
43.54,38.30,89.48,1.00,0.00,0.00
44.29,41.83,94.65,1.00,0.00,0.00
46.15,38.60,96.50,1.00,0.00,0.00
47.66,40.56,100.01,1.00,0.00,0.00
49.66,36.89,101.19,1.00,0.00,0.00
49.56,39.65,104.77,1.00,0.00,0.00
30.16,58.20,87.41,1.00,0.00,0.00
-21.87,85.70,70.25,1.00,0.00,0.00
